1087.208862 768.484863 -43.760864
1306.043213 1370.279297 -38.508911
1098.150513 768.484863 -42.580566
1316.984863 1370.279297 -40.257935
1087.208862 779.426514 -41.075073
1284.15979 1381.220947 -39.095825
1273.218018 1381.220947 -42.670776
1098.150513 779.426514 -40.837769
1295.10144 1381.220947 -37.66626
233.754883 975.600098 -36.143677
233.754883 976.377441 -36.660645
1284.15979 1392.16272 -40.356323
1273.218018 1392.16272 -42.822754
235.838318 976.377441 -36.143677
1295.10144 1392.16272 -38.748413
233.754883 987.319214 -43.831665
1306.043213 1381.220947 -37.612427
1316.984863 1381.220947 -39.091675
244.696594 979.342407 -36.143677
244.696594 987.319214 -42.775391
1306.043213 1392.16272 -38.518188
1316.984863 1392.16272 -40.088745
1327.926636 1359.337524 -45.765015
255.638336 981.274292 -36.143677
255.638336 987.319214 -41.25708
1338.868286 1359.337524 -46.451294
266.580048 987.319214 -40.338135
266.580048 981.971191 -36.143677
1109.092285 680.95105 -46.5
1327.926636 1370.279297 -43.290894
1338.868286 1370.279297 -46.064819
1109.092285 691.892822 -44.709595
1349.810059 1359.337524 -45.762817
1120.033936 691.892822 -46.990234
277.521759 986.001099 -36.143677
277.521759 987.319214 -37.080566
1360.751709 1359.337524 -43.775391
279.37854 987.319214 -36.143677
277.521759 998.260864 -44.5271
1360.751709 1370.279297 -45.575928
288.46347 995.842529 -36.143677
288.46347 998.260864 -38.091431
1327.926636 1381.220947 -42.06665
1207.567749 615.300781 -43.242188
291.248352 998.260864 -36.143677
1338.868286 1381.220947 -45.509399
1207.567749 626.242554 -44.540405
1327.926636 1392.16272 -42.846069
1218.509399 615.300781 -36.908447
1338.868286 1392.16272 -45.355103
1229.451172 609.565186 -36.143677
1220.167725 615.300781 -36.143677
288.46347 1009.202637 -46.507202
1218.509399 626.242554 -36.681763
1360.751709 1381.220947 -46.600586
1219.622681 626.242554 -36.143677
1349.810059 1392.16272 -46.70459
299.405182 1009.202637 -42.009644
299.405182 1003.643433 -36.143677
1207.567749 637.184204 -46.247314
309.32901 1009.202637 -36.143677
1360.751709 1392.16272 -45.778442
1218.509399 637.184204 -40.114746
1371.693481 1315.570679 -46.762329
1229.451172 632.720093 -36.143677
1229.451172 637.184204 -37.654053
310.346924 1009.755615 -36.143677
310.346924 1020.144287 -46.599121
1382.635132 1315.570679 -45.82666
1218.509399 648.125977 -46.901855
1229.451172 648.125977 -43.54895
1382.635132 1326.512451 -46.674683
321.288635 1020.144287 -40.688843
321.288635 1015.778442 -36.143677
1240.392822 615.300781 -36.174316
1240.261597 615.300781 -36.143677
1393.576904 1315.570679 -44.153564
332.230347 1020.108276 -36.143677
332.230347 1020.144287 -36.180664
1251.334595 615.300781 -38.110229
1404.518677 1315.570679 -42.961182
332.357056 1020.144287 -36.143677
1240.392822 615.526001 -36.143677
1393.576904 1326.512451 -43.790405
1251.334595 626.242554 -37.809204
1240.927368 626.242554 -36.143677
1404.518677 1326.512451 -42.891113
332.230347 1031.08606 -45.458984
1262.276245 615.300781 -39.314941
1371.693481 1337.454102 -46.600342
1273.218018 615.300781 -40.888306
343.172058 1023.52356 -36.143677
343.172058 1031.08606 -43.198364
1382.635132 1337.454102 -44.760742
1262.276245 626.242554 -38.471558
354.11377 1028.649658 -36.143677
354.11377 1031.08606 -38.314331
1371.693481 1348.395874 -43.102783
1273.218018 626.242554 -38.448608
1382.635132 1348.395874 -42.070557
1240.392822 637.184204 -37.980713
1240.392822 627.09082 -36.143677
1393.576904 1337.454102 -42.350708
1251.334595 637.184204 -38.19397
1404.518677 1337.454102 -42.415405
357.94986 1031.08606 -36.143677
1240.392822 648.125977 -41.43103
1393.576904 1348.395874 -41.206055
1251.334595 648.125977 -40.072754
1404.518677 1348.395874 -41.87146
365.055481 1042.02771 -39.361694
365.055481 1037.452637 -36.143677
1262.276245 637.184204 -37.795898
369.229065 1042.02771 -36.143677
1415.460327 1315.570679 -42.866333
1273.218018 637.184204 -37.176025
1426.4021 1315.570679 -42.864136
1262.276245 648.125977 -38.794189
1415.460327 1326.512451 -44.079224
1273.218018 648.125977 -37.977539
1426.4021 1326.512451 -44.362793
1437.34375 1315.570679 -43.037354
1448.285522 1315.570679 -44.032104
1437.34375 1326.512451 -43.515015
1229.451172 691.892822 -46.512695
1448.285522 1326.512451 -43.185669
365.055481 1052.969482 -46.994385
1240.392822 659.067627 -45.03894
1415.460327 1337.454102 -43.72229
1251.334595 659.067627 -42.3125
375.997223 1049.284668 -36.143677
375.997223 1052.969482 -38.079834
1426.4021 1337.454102 -43.786987
1240.392822 670.009399 -46.240112
1415.460327 1348.395874 -43.100708
1251.334595 670.009399 -41.262817
375.997223 1063.911133 -43.050537
1426.4021 1348.395874 -43.022217
1262.276245 659.067627 -40.284424
379.59314 1052.969482 -36.143677
1437.34375 1337.454102 -43.012939
1273.218018 659.067627 -39.444824
1448.285522 1337.454102 -43.542969
1262.276245 670.009399 -39.456909
386.938904 1060.624634 -36.143677
386.938904 1063.911133 -36.997925
389.020142 1063.911133 -36.143677
1437.34375 1348.395874 -42.394653
1273.218018 670.009399 -40.529907
1448.285522 1348.395874 -44.135742
375.997223 1074.852905 -43.603516
1240.392822 680.95105 -44.387329
375.997223 1085.794678 -41.166016
1251.334595 680.95105 -38.159424
1371.693481 1359.337524 -42.08667
386.938904 1074.852905 -37.322876
1382.635132 1359.337524 -41.078491
1240.392822 691.892822 -43.164185
389.306213 1074.852905 -36.143677
1371.693481 1370.279297 -42.582764
1251.334595 691.892822 -38.980957
1382.635132 1370.279297 -40.125854
386.938904 1080.342285 -36.143677
384.603363 1085.794678 -36.143677
1262.276245 680.95105 -38.000488
1393.576904 1359.337524 -40.577759
1273.218018 680.95105 -41.346191
1404.518677 1359.337524 -41.353394
354.11377 1107.678101 -45.790283
1262.276245 691.892822 -39.388428
1393.576904 1370.279297 -39.532837
1273.218018 691.892822 -42.664551
1404.518677 1370.279297 -40.694946
354.11377 1118.619751 -45.047485
1109.092285 702.834473 -44.825195
1371.693481 1381.220947 -43.009277
354.11377 1129.561523 -45.974854
1120.033936 702.834473 -46.634399
365.055481 1096.736328 -44.348022
1382.635132 1381.220947 -39.542114
1109.092285 713.776245 -44.697021
1371.693481 1392.16272 -43.511841
375.997223 1096.736328 -40.057251
1120.033936 713.776245 -46.102051
1382.635132 1392.16272 -41.391968
365.055481 1107.678101 -42.366699
1393.576904 1381.220947 -39.300415
375.997223 1107.678101 -40.110107
1404.518677 1381.220947 -41.389282
1109.092285 724.718018 -44.373901
384.300323 1096.736328 -36.143677
1393.576904 1392.16272 -41.67688
1120.033936 724.718018 -45.191406
1404.518677 1392.16272 -44.208862
386.938904 1102.164917 -36.143677
386.938904 1107.678101 -37.352539
1109.092285 735.659668 -44.722534
1415.460327 1359.337524 -43.207031
392.430786 1107.678101 -36.143677
1120.033936 735.659668 -45.054443
1426.4021 1359.337524 -43.675781
365.055481 1118.619751 -42.051147
1415.460327 1370.279297 -43.054565
375.997223 1118.619751 -40.286743
1426.4021 1370.279297 -44.650146
365.055481 1129.561523 -42.800659
375.997223 1129.561523 -40.17395
1437.34375 1359.337524 -43.342285
1109.092285 746.60144 -45.267822
1448.285522 1359.337524 -45.176392
386.938904 1118.619751 -39.211426
1120.033936 746.60144 -45.628174
1437.34375 1370.279297 -45.510132
1109.092285 757.543091 -44.816528
397.880615 1118.619751 -38.613159
397.880615 1109.985596 -36.143677
1120.033936 757.543091 -45.357422
1448.285522 1370.279297 -46.999268
386.938904 1129.561523 -39.179199
1415.460327 1381.220947 -43.883057
397.880615 1129.561523 -38.936768
1426.4021 1381.220947 -46.155762
1109.092285 768.484863 -43.081177
1415.460327 1392.16272 -46.51355
1120.033936 768.484863 -44.549805
1109.092285 779.426514 -42.616211
1120.033936 779.426514 -45.370605
572.94812 962.960449 -36.143677
1273.218018 1403.10437 -41.118896
1284.15979 1403.10437 -41.197632
572.94812 968.34082 -36.143677
572.94812 976.377441 -37.306274
566.4729 976.377441 -36.143677
562.006409 985.921021 -36.143677
562.006409 987.319214 -36.275146
561.688904 987.319214 -36.143677
1295.10144 1403.10437 -40.290039
1229.451172 702.834473 -46.755615
1284.15979 1414.046143 -40.085815
1273.218018 1414.046143 -39.017944
572.94812 987.319214 -40.884888
1295.10144 1414.046143 -40.114502
562.006409 998.260864 -37.833252
559.322083 998.260864 -36.143677
1240.392822 702.834473 -45.072754
1306.043213 1403.10437 -39.413574
572.94812 998.260864 -45.079712
1251.334595 702.834473 -42.945801
1316.984863 1403.10437 -40.474121
1306.043213 1414.046143 -39.56897
551.064697 1019.592651 -36.143677
551.064697 1020.144287 -36.283813
550.675476 1020.144287 -36.143677
1251.334595 713.776245 -46.176636
1316.984863 1414.046143 -40.354004
562.006409 1009.202637 -39.529419
556.241577 1009.202637 -36.143677
1262.276245 702.834473 -42.299072
1284.15979 1424.987915 -37.838623
1273.218018 1424.987915 -37.356201
572.94812 1009.202637 -46.906616
1273.218018 702.834473 -43.613159
1295.10144 1424.987915 -38.231201
1262.276245 713.776245 -45.25
562.006409 1020.144287 -41.123169
1284.15979 1432.461182 -36.143677
1273.218018 1432.654907 -36.143677
1273.218018 713.776245 -45.475586
1295.10144 1433.049683 -36.143677
1306.043213 1424.987915 -39.101074
551.064697 1031.08606 -38.53772
544.413086 1031.08606 -36.143677
1316.984863 1424.987915 -41.115723
540.122986 1041.590698 -36.143677
540.122986 1042.02771 -36.220459
539.887695 1042.02771 -36.143677
551.064697 1042.02771 -41.45166
1306.043213 1435.929565 -37.07666
1302.769409 1435.929565 -36.143677
1316.984863 1435.929565 -41.451904
562.006409 1031.08606 -44.325073
1327.926636 1403.10437 -42.949585
934.02478 812.251709 -46.575684
1338.868286 1403.10437 -44.864014
934.02478 823.193359 -41.993042
1327.926636 1414.046143 -42.662476
1338.868286 1414.046143 -44.37085
944.966553 823.193359 -44.618286
1349.810059 1403.10437 -45.088623
485.414368 1061.620239 -36.143677
485.414368 1063.911133 -36.689453
483.459167 1063.911133 -36.143677
1360.751709 1403.10437 -44.14917
1349.810059 1414.046143 -43.785767
485.414368 1074.852905 -38.510376
477.797058 1074.852905 -36.143677
934.02478 834.135132 -39.324951
474.472656 1082.489502 -36.143677
474.472656 1085.794678 -36.907837
472.340149 1085.794678 -36.143677
1360.751709 1414.046143 -42.826538
944.966553 834.135132 -41.702637
1327.926636 1424.987915 -43.480957
934.02478 845.076904 -39.031494
485.414368 1085.794678 -39.375244
1338.868286 1424.987915 -44.254395
944.966553 845.076904 -42.035034
1327.926636 1435.929565 -44.452637
408.822388 1113.290771 -36.143677
408.822388 1118.619751 -37.467041
955.908203 834.135132 -45.654663
1338.868286 1435.929565 -44.458984
419.764099 1114.297974 -36.143677
419.764099 1118.619751 -37.059082
408.822388 1129.561523 -37.671997
1349.810059 1424.987915 -42.633545
955.908203 845.076904 -45.227051
419.764099 1129.561523 -37.351807
1360.751709 1424.987915 -41.913208
430.705811 1118.619751 -38.0448
430.705811 1110.544556 -36.143677
1349.810059 1435.929565 -42.428101
934.02478 856.018555 -39.382812
441.647522 1118.619751 -38.632202
441.647522 1107.973267 -36.143677
1360.751709 1435.929565 -42.274414
944.966553 856.018555 -42.513184
430.705811 1129.561523 -38.197876
934.02478 866.960327 -41.086548
1306.043213 1440.078125 -36.143677
441.647522 1129.561523 -38.605713
944.966553 866.960327 -42.844849
452.589233 1107.627808 -36.143677
452.589233 1107.678101 -36.15564
445.015686 1107.678101 -36.143677
1316.984863 1446.871338 -41.462402
1307.220703 1446.871338 -36.143677
955.908203 856.018555 -45.666748
463.530945 1107.678101 -36.578247
463.530945 1101.253052 -36.143677
1306.043213 1454.111694 -36.143677
1306.043213 1457.812988 -36.820679
1304.48877 1457.812988 -36.143677
474.472656 1096.736328 -38.552368
465.819458 1096.736328 -36.143677
955.908203 866.960327 -45.592285
1316.984863 1457.812988 -42.049561
485.414368 1096.736328 -39.094604
1295.10144 1473.731201 -36.143677
1295.10144 1479.696411 -36.981201
1292.482056 1479.696411 -36.143677
474.472656 1107.678101 -37.706055
1306.043213 1468.754761 -38.927856
1297.691162 1468.754761 -36.143677
1054.383667 790.368286 -45.617065
485.414368 1107.678101 -37.654541
1316.984863 1468.754761 -42.39856
1054.383667 801.309937 -45.918091
452.589233 1118.619751 -38.011597
1306.043213 1479.696411 -40.801147
1054.383667 812.251709 -46.151245
463.530945 1118.619751 -37.152588
1316.984863 1479.696411 -43.076172
1054.383667 823.193359 -46.601807
452.589233 1129.561523 -38.102173
1327.926636 1446.871338 -44.95813
1065.325439 790.368286 -44.45105
463.530945 1129.561523 -36.81604
1338.868286 1446.871338 -45.274292
1076.26709 790.368286 -41.333252
474.472656 1118.619751 -36.738892
1327.926636 1457.812988 -44.776245
1065.325439 801.309937 -43.587891
485.414368 1118.619751 -36.624023
1338.868286 1457.812988 -45.273926
1076.26709 801.309937 -40.350708
1349.810059 1446.871338 -43.946533
1087.208862 790.368286 -39.608398
469.793701 1129.561523 -36.143677
474.472656 1127.373901 -36.143677
1360.751709 1446.871338 -43.896851
1098.150513 790.368286 -40.989258
485.414368 1129.521362 -36.143677
1349.810059 1457.812988 -44.76001
1087.208862 801.309937 -39.8927
496.356079 1063.911133 -39.682373
496.356079 1055.982422 -36.143677
1360.751709 1457.812988 -44.831543
1098.150513 801.309937 -42.045288
507.297791 1055.495728 -36.143677
507.297791 1063.911133 -40.902832
1327.926636 1468.754761 -43.815552
1065.325439 812.251709 -43.712036
1338.868286 1468.754761 -44.018799
518.239563 1056.769775 -36.143677
518.239563 1063.911133 -39.896851
1076.26709 812.251709 -41.319336
1327.926636 1479.696411 -43.680542
529.181274 1063.911133 -40.071167
529.181274 1054.374268 -36.143677
1065.325439 823.193359 -44.970703
1338.868286 1479.696411 -43.762451
496.356079 1074.852905 -41.63623
1076.26709 823.193359 -42.90332
1349.810059 1468.754761 -43.748901
507.297791 1074.852905 -43.333984
1087.208862 812.251709 -41.218994
496.356079 1085.794678 -40.873657
1360.751709 1468.754761 -44.006958
1098.150513 812.251709 -42.571045
507.297791 1085.794678 -42.542847
1349.810059 1479.696411 -43.485474
1087.208862 823.193359 -42.043945
518.239563 1074.852905 -43.442505
1360.751709 1479.696411 -43.370483
1098.150513 823.193359 -42.940063
529.181274 1074.852905 -44.169434
1371.693481 1403.10437 -43.776611
518.239563 1085.794678 -43.634277
1382.635132 1403.10437 -43.987183
529.181274 1085.794678 -45.600464
1371.693481 1414.046143 -43.654175
1065.325439 834.135132 -46.579956
540.122986 1052.969482 -39.271362
531.112366 1052.969482 -36.143677
1382.635132 1414.046143 -44.862671
1076.26709 834.135132 -44.638306
551.064697 1052.969482 -46.753784
1393.576904 1403.10437 -44.840576
1404.518677 1403.10437 -46.749023
1076.26709 845.076904 -46.270996
540.122986 1063.911133 -43.977051
1393.576904 1414.046143 -46.102783
1087.208862 834.135132 -43.282837
1098.150513 834.135132 -44.113892
1087.208862 845.076904 -45.067261
1371.693481 1424.987915 -43.863037
1098.150513 845.076904 -45.556396
1382.635132 1424.987915 -45.51001
1371.693481 1435.929565 -45.210449
1076.26709 856.018555 -46.928467
1087.208862 856.018555 -46.447021
1393.576904 1424.987915 -46.695923
496.356079 1096.736328 -39.074951
507.297791 1096.736328 -40.897461
496.356079 1107.678101 -37.713379
507.297791 1107.678101 -39.959595
934.02478 877.901978 -46.103027
518.239563 1096.736328 -42.845825
944.966553 877.901978 -45.95459
529.181274 1096.736328 -45.500366
518.239563 1107.678101 -43.314331
1371.693481 1446.871338 -46.728027
529.181274 1107.678101 -46.497803
496.356079 1118.619751 -37.576782
1371.693481 1457.812988 -46.991333
507.297791 1118.619751 -41.011841
1371.693481 1468.754761 -45.817261
496.356079 1129.561523 -38.292236
485.431763 1129.561523 -36.143677
507.297791 1129.561523 -44.16394
1371.693481 1479.696411 -44.712524
518.239563 1118.619751 -46.719849
1109.092285 790.368286 -43.551147
1120.033936 790.368286 -46.452026
1459.227173 1315.570679 -45.319214
1109.092285 801.309937 -43.624634
1470.168945 1315.570679 -45.958252
1120.033936 801.309937 -45.637817
1459.227173 1326.512451 -44.282837
1470.168945 1326.512451 -45.134155
1481.110596 1315.570679 -45.690552
1109.092285 812.251709 -43.252686
1120.033936 812.251709 -44.567749
1492.052368 1315.570679 -43.798584
1109.092285 823.193359 -44.109863
1481.110596 1326.512451 -44.647095
1120.033936 823.193359 -45.47583
1492.052368 1326.512451 -43.723755
365.055481 1140.503174 -43.659912
1130.975708 812.251709 -46.390747
1459.227173 1337.454102 -45.276489
375.997223 1140.503174 -39.098145
1470.168945 1337.454102 -45.913574
365.055481 1151.444946 -43.661011
1130.975708 823.193359 -45.903076
1459.227173 1348.395874 -46.722778
375.997223 1151.444946 -37.688965
1141.917358 823.193359 -45.833374
386.938904 1140.503174 -36.716064
397.880615 1140.503174 -36.183838
1481.110596 1337.454102 -45.575562
1109.092285 834.135132 -45.637695
386.938904 1142.594849 -36.143677
379.976593 1151.444946 -36.143677
1492.052368 1337.454102 -46.105591
1120.033936 834.135132 -46.796387
397.880615 1140.629272 -36.143677
1109.092285 845.076904 -46.72583
365.055481 1162.386597 -41.526123
375.997223 1162.386597 -36.47937
1502.994019 1315.570679 -41.374268
1130.975708 834.135132 -46.619629
365.055481 1173.328369 -42.933228
1513.935791 1315.570679 -40.579468
1141.917358 834.135132 -45.732178
375.997223 1173.328369 -38.584229
1502.994019 1326.512451 -44.065796
377.296234 1162.386597 -36.143677
1513.935791 1326.512451 -45.683105
386.026855 1173.328369 -36.143677
1524.877563 1315.570679 -39.917236
1524.877563 1304.674927 -36.143677
1534.476929 1315.570679 -36.143677
1524.877563 1326.512451 -45.695801
1152.859131 834.135132 -46.641724
375.997223 1184.27002 -44.449707
1535.819214 1317.968994 -36.143677
1535.819214 1326.512451 -40.432373
375.997223 1195.211792 -44.935181
386.938904 1184.27002 -39.743652
386.938904 1174.20166 -36.143677
393.551514 1184.27002 -36.143677
386.938904 1195.211792 -41.231934
396.127441 1195.211792 -36.143677
365.055481 1206.153564 -47.076782
1229.451172 866.960327 -45.21936
375.997223 1206.153564 -42.176147
1240.392822 866.960327 -44.857422
1251.334595 866.960327 -44.504639
375.997223 1217.095215 -41.824829
1262.276245 866.960327 -44.998535
386.938904 1206.153564 -38.234619
392.419189 1206.153564 -36.143677
386.938904 1217.095215 -37.003296
1540.414917 1326.512451 -36.143677
1174.742554 888.84375 -46.766479
389.236938 1217.095215 -36.143677
1185.684326 888.84375 -45.514648
1163.800903 910.727173 -46.641602
375.997223 1228.036987 -45.837036
1174.742554 899.7854 -45.94519
1546.760986 1336.467407 -36.143677
1546.760986 1337.454102 -37.022705
1185.684326 899.7854 -42.761475
1547.517822 1337.454102 -36.143677
386.938904 1228.036987 -40.676636
397.108582 1228.036987 -36.143677
1174.742554 910.727173 -43.960205
1185.684326 910.727173 -41.40686
1557.702637 1347.532837 -36.143677
1557.702637 1348.395874 -36.937012
386.938904 1238.978638 -46.134033
1558.84729 1348.395874 -36.143677
1163.800903 921.668823 -45.818359
397.880615 1238.978638 -40.989624
397.880615 1228.641846 -36.143677
1174.742554 921.668823 -43.525024
1568.644409 1354.550903 -36.143677
1568.644409 1359.337524 -40.893921
1185.684326 921.668823 -42.052368
397.880615 1249.92041 -44.241699
1579.58606 1358.42041 -36.143677
1579.58606 1359.337524 -37.058105
397.880615 1260.862061 -46.484863
1174.742554 932.610596 -45.564575
1185.684326 932.610596 -44.309692
1583.459351 1359.337524 -36.143677
408.822388 1137.431152 -36.143677
398.54071 1140.503174 -36.143677
1207.567749 877.901978 -44.83606
1590.527832 1370.279297 -39.959961
1590.527832 1362.640137 -36.143677
419.764099 1137.68811 -36.143677
1196.625977 888.84375 -42.274658
1595.377197 1370.279297 -36.143677
1207.567749 888.84375 -38.949097
1590.527832 1381.220947 -44.104736
430.705811 1140.503174 -37.036865
424.298401 1140.503174 -36.143677
1218.509399 877.901978 -41.956055
1597.66394 1381.220947 -36.143677
441.647522 1140.503174 -37.736694
1229.451172 877.901978 -41.310669
430.705811 1146.122437 -36.143677
441.647522 1148.513794 -36.143677
1600.779663 1392.16272 -36.143677
1218.509399 888.84375 -37.874146
1229.451172 888.84375 -39.056641
452.589233 1140.503174 -36.492432
1196.625977 899.7854 -39.516357
1207.567749 899.7854 -37.524536
463.530945 1133.648438 -36.143677
454.363586 1140.503174 -36.143677
1196.625977 910.727173 -39.820557
452.589233 1142.020386 -36.143677
1207.567749 910.727173 -38.852295
1601.469482 1394.169312 -36.143677
1601.469482 1403.10437 -37.799316
1218.509399 899.7854 -36.529541
1601.469482 1414.046143 -38.279541
1229.451172 899.7854 -37.395996
1603.420288 1403.10437 -36.143677
1218.509399 910.727173 -37.213501
441.647522 1200.652222 -36.143677
441.647522 1206.153564 -37.092651
433.536865 1206.153564 -36.143677
1603.881592 1414.046143 -36.143677
1229.451172 910.727173 -36.467163
441.647522 1217.095215 -37.418457
432.482361 1217.095215 -36.143677
1601.469482 1424.987915 -40.352783
1240.392822 877.901978 -41.740234
450.212158 1206.153564 -36.143677
1251.334595 877.901978 -40.989624
1601.469482 1435.929565 -46.656982
1240.392822 888.84375 -40.137207
1605.512207 1424.987915 -36.143677
452.589233 1209.709595 -36.143677
452.589233 1217.095215 -37.259033
1251.334595 888.84375 -38.932373
459.738098 1217.095215 -36.143677
1608.348022 1435.929565 -36.143677
1262.276245 877.901978 -40.360596
485.414368 1199.308594 -36.143677
485.414368 1206.153564 -38.416626
481.837341 1206.153564 -36.143677
485.414368 1217.095215 -37.228638
483.121155 1217.095215 -36.143677
1262.276245 888.84375 -36.583252
496.356079 1140.503174 -38.587524
488.814026 1140.503174 -36.143677
1609.248047 1446.871338 -36.143677
507.297791 1140.503174 -46.917725
1264.338013 888.84375 -36.143677
1609.370605 1457.812988 -36.143677
496.356079 1151.444946 -37.648804
493.21051 1151.444946 -36.143677
1240.392822 899.7854 -38.655151
1609.203369 1468.754761 -36.143677
1251.334595 899.7854 -37.706909
1610.024048 1479.696411 -36.143677
1240.392822 910.727173 -37.061768
1251.334595 910.727173 -36.734985
1295.10144 1490.638184 -38.312256
1289.055542 1490.638184 -36.143677
496.356079 1161.713501 -36.143677
1295.10144 1501.579834 -39.407715
1285.86853 1501.579834 -36.143677
1262.276245 890.56958 -36.143677
1257.875244 899.7854 -36.143677
1306.043213 1490.638184 -42.3125
507.297791 1162.386597 -44.213623
496.524963 1162.386597 -36.143677
1254.794312 910.727173 -36.143677
1316.984863 1490.638184 -44.193848
1196.625977 921.668823 -41.287476
507.297791 1173.328369 -41.312134
498.849182 1173.328369 -36.143677
1306.043213 1501.579834 -43.204224
1207.567749 921.668823 -40.684814
1316.984863 1501.579834 -45.354736
1196.625977 932.610596 -43.602661
1284.15979 1505.151123 -36.143677
1284.15979 1512.521606 -37.453369
1278.890503 1512.521606 -36.143677
518.239563 1173.328369 -46.330566
1207.567749 932.610596 -42.352539
529.181274 1173.328369 -46.358521
1295.10144 1512.521606 -40.496216
1218.509399 921.668823 -38.653687
540.122986 1162.386597 -47.05896
1229.451172 921.668823 -36.453613
1284.15979 1523.463257 -38.826416
1273.218018 1523.463257 -36.682007
1273.218018 1519.20752 -36.143677
1218.509399 932.610596 -39.888062
1295.10144 1523.463257 -40.957886
1229.451172 932.610596 -36.79248
540.122986 1173.328369 -45.666748
1306.043213 1512.521606 -43.878662
1196.625977 943.552246 -46.790771
1316.984863 1512.521606 -46.921631
1207.567749 943.552246 -44.960205
507.297791 1184.27002 -39.848511
499.595581 1184.27002 -36.143677
1306.043213 1523.463257 -44.170288
496.356079 1191.246216 -36.143677
496.356079 1195.211792 -37.839111
490.358826 1195.211792 -36.143677
1218.509399 943.552246 -41.580933
507.297791 1195.211792 -39.818237
1327.926636 1490.638184 -44.904175
1229.451172 943.552246 -37.688721
518.239563 1184.27002 -44.416992
1338.868286 1490.638184 -45.526001
1218.509399 954.494019 -43.53186
529.181274 1184.27002 -45.730591
1327.926636 1501.579834 -46.738037
518.239563 1195.211792 -41.915527
1229.451172 954.494019 -39.220703
529.181274 1195.211792 -43.961426
1232.668213 921.668823 -36.143677
1240.392822 920.049316 -36.143677
1349.810059 1490.638184 -45.780518
496.356079 1206.153564 -41.852539
1251.334595 918.065674 -36.143677
1360.751709 1490.638184 -45.150635
1232.215454 932.610596 -36.143677
507.297791 1206.153564 -40.196655
496.356079 1217.095215 -40.174805
1234.604614 943.552246 -36.143677
507.297791 1217.095215 -38.896973
518.239563 1206.153564 -39.865601
1240.392822 952.745239 -36.143677
1240.392822 954.494019 -36.441284
529.181274 1206.153564 -41.428955
1241.929932 954.494019 -36.143677
518.239563 1217.095215 -38.683716
1273.218018 1534.405029 -37.630981
1284.15979 1534.405029 -39.36145
529.181274 1217.095215 -39.794189
1273.735596 177.63205 -36.143677
1295.10144 1534.405029 -41.427368
540.122986 1184.27002 -46.671387
1284.15979 187.832001 -36.143677
1284.15979 188.573761 -36.313477
1273.218018 1545.346802 -38.626953
1284.15979 1545.346802 -39.928101
1284.394165 188.573761 -36.143677
1295.10144 1545.346802 -41.878906
540.122986 1195.211792 -46.082397
1284.15979 199.515533 -37.866455
1306.043213 1534.405029 -44.799561
1286.073242 199.515533 -36.143677
1284.15979 210.457245 -37.547363
540.122986 1206.153564 -43.656982
1306.043213 1545.346802 -45.404297
1285.453979 210.457245 -36.143677
540.122986 1217.095215 -41.852783
1273.218018 1556.288452 -40.177368
1284.15979 1556.288452 -41.39978
1284.15979 217.936005 -36.143677
1283.324463 221.398956 -36.143677
1295.10144 1556.288452 -43.088745
408.822388 1236.852173 -36.143677
408.822388 1238.978638 -36.793945
1281.129272 232.340668 -36.143677
1273.218018 1567.230225 -41.940552
1284.15979 1567.230225 -44.201416
411.141846 1238.978638 -36.143677
1295.10144 1567.230225 -46.15564
441.647522 1228.036987 -36.920776
435.198303 1228.036987 -36.143677
1284.15979 241.86026 -36.143677
1284.15979 243.282379 -36.803101
1306.043213 1556.288452 -45.859131
441.647522 1238.978638 -36.709595
436.890381 1238.978638 -36.143677
1287.723145 243.282379 -36.143677
408.822388 1249.92041 -39.982788
1284.15979 254.224091 -42.754517
419.764099 1246.499878 -36.143677
419.764099 1249.92041 -36.939697
1295.10144 254.224091 -43.167969
1295.10144 243.516632 -36.143677
1306.043213 242.461823 -36.143677
1306.043213 243.282379 -36.577026
1297.18396 243.282379 -36.143677
408.822388 1260.862061 -43.452637
1360.751709 1545.346802 -46.909912
1316.984863 243.282379 -36.528442
1316.984863 242.340973 -36.143677
419.764099 1260.862061 -40.739502
1360.751709 1556.288452 -46.280884
430.705811 1246.839478 -36.143677
430.705811 1249.92041 -36.733032
1306.043213 254.224091 -41.996338
1316.984863 254.224091 -40.856934
1371.693481 1490.638184 -45.242798
441.647522 1249.92041 -37.666138
430.705811 1260.862061 -39.792847
1327.926636 242.71524 -36.143677
1327.926636 243.282379 -36.383545
1332.933594 243.282379 -36.143677
441.647522 1260.862061 -39.867432
1371.693481 1501.579834 -46.7146
1327.926636 254.224091 -40.887695
452.589233 1228.036987 -38.348999
1338.868286 254.224091 -40.22998
1338.868286 245.39975 -36.143677
463.530945 1220.297974 -36.143677
463.530945 1228.036987 -38.317383
1349.810059 250.74881 -36.143677
1349.810059 254.224091 -38.220459
452.589233 1238.978638 -38.67749
1359.700928 254.224091 -36.143677
463.530945 1238.978638 -40.468872
1371.693481 1534.405029 -46.401001
473.3349 1228.036987 -36.143677
485.414368 1228.036987 -36.384766
484.659241 1228.036987 -36.143677
1382.635132 1534.405029 -46.585083
1371.693481 1545.346802 -44.780884
474.472656 1238.978638 -40.180298
474.472656 1229.029175 -36.143677
1382.635132 1545.346802 -44.876831
485.414368 1238.978638 -41.664551
1306.043213 265.165802 -46.153198
452.589233 1249.92041 -39.191406
1316.984863 265.165802 -44.980225
1393.576904 1545.346802 -45.795044
463.530945 1249.92041 -42.391235
452.589233 1260.862061 -41.630127
1371.693481 1556.288452 -45.262207
463.530945 1260.862061 -46.15625
1382.635132 1556.288452 -45.5448
1327.926636 265.165802 -45.082031
474.472656 1249.92041 -46.566162
1338.868286 265.165802 -45.043945
1371.693481 1567.230225 -46.935547
1382.635132 1567.230225 -46.753296
1393.576904 1556.288452 -45.518311
1349.810059 265.165802 -44.471924
1360.751709 265.165802 -42.839233
1360.751709 254.541473 -36.143677
1404.518677 1556.288452 -45.85083
419.764099 1271.803833 -46.483887
1393.576904 1567.230225 -46.578979
1404.518677 1567.230225 -46.987915
1360.751709 276.107513 -46.749512
430.705811 1271.803833 -45.463135
441.647522 1271.803833 -44.800049
1284.15979 308.932648 -47.016357
1273.218018 1578.171875 -43.822266
1284.15979 1578.171875 -46.428101
1289.933105 313.771576 -46.913086
1295.10144 319.87442 -46.120605
452.589233 1271.803833 -46.599854
1306.043213 319.87442 -45.405884
1316.984863 319.87442 -45.694702
1273.218018 1589.113647 -46.205444
1295.10144 330.816132 -45.794312
1295.10144 341.757843 -46.035645
1306.043213 330.816132 -42.955444
1316.984863 330.816132 -42.57666
496.356079 1228.036987 -39.038452
1306.043213 341.757843 -42.432129
507.297791 1228.036987 -39.182007
1316.984863 341.757843 -42.396851
496.356079 1238.978638 -45.334595
1327.926636 319.87442 -46.654053
507.297791 1238.978638 -44.98291
518.239563 1228.036987 -39.249146
1327.926636 330.816132 -43.907227
529.181274 1228.036987 -39.863403
518.239563 1238.978638 -43.020264
1338.868286 330.816132 -45.972534
529.181274 1238.978638 -42.69812
1327.926636 341.757843 -44.121826
1338.868286 341.757843 -45.8302
1371.693481 259.60202 -36.143677
1371.693481 265.165802 -39.057983
1378.576782 265.165802 -36.143677
540.122986 1228.036987 -42.360229
1371.693481 276.107513 -43.955688
1382.635132 269.059174 -36.143677
1382.635132 276.107513 -39.676147
540.122986 1238.978638 -46.217285
1612.411255 1488.790649 -36.143677
1612.411255 1490.638184 -37.80127
1391.17688 276.107513 -36.143677
1613.068604 1490.638184 -36.143677
1612.411255 1501.579834 -46.411377
1371.693481 287.049225 -46.36145
1617.319092 1501.579834 -36.143677
1382.635132 287.049225 -44.628174
1382.635132 297.990936 -46.74231
1620.685547 1512.521606 -36.143677
1621.952148 1523.463257 -36.143677
1393.576904 287.049225 -41.593872
1393.576904 277.685577 -36.143677
1404.518677 284.28891 -36.143677
1404.518677 287.049225 -37.94397
474.472656 1337.454102 -46.518677
1393.576904 297.990936 -45.420654
1623.353027 1533.931885 -36.143677
1623.353027 1534.405029 -36.348267
485.414368 1337.454102 -45.550171
1404.518677 297.990936 -44.005249
474.472656 1348.395874 -44.832397
1623.353027 1545.346802 -42.53833
485.414368 1348.395874 -46.291626
1409.476074 287.049225 -36.143677
1415.460327 297.990936 -41.05896
1415.460327 290.667389 -36.143677
1425.120605 297.990936 -36.143677
1623.353027 1578.171875 -45.644775
1623.353027 1589.113647 -41.158813
1393.576904 308.932648 -46.446045
1623.353027 1599.783813 -36.143677
1623.309692 1600.055298 -36.143677
1404.518677 308.932648 -46.557617
1622.292114 1610.996948 -36.143677
1623.025024 1621.938843 -36.143677
1415.460327 308.932648 -45.41333
1426.4021 308.932648 -40.559814
1426.4021 299.23056 -36.143677
1623.353027 1624.160522 -36.143677
1623.353027 1632.880493 -40.224121
1415.460327 319.87442 -46.70874
1623.353027 1643.822144 -42.067383
1426.4021 319.87442 -43.116333
1623.353027 1654.763794 -44.37207
1433.324585 308.932648 -36.143677
1437.34375 317.933441 -36.143677
1437.34375 319.87442 -36.604736
1438.070679 319.87442 -36.143677
1426.4021 330.816132 -44.960938
583.889832 965.435791 -37.374023
573.593567 965.435791 -36.143677
1426.4021 341.757843 -46.894897
594.831543 965.435791 -39.680176
1437.34375 330.816132 -40.103638
583.889832 976.377441 -39.926147
1444.041138 330.816132 -36.143677
1437.34375 341.757843 -43.837769
594.831543 976.377441 -44.630859
605.773254 965.435791 -44.779663
1623.46521 1534.405029 -36.143677
1448.285522 337.421722 -36.143677
1448.285522 341.757843 -37.887695
1626.297119 1545.346802 -36.143677
1295.10144 352.699554 -46.862305
1628.041748 1556.288452 -36.143677
1306.043213 352.699554 -44.345947
1628.161133 1567.230225 -36.143677
583.889832 987.319214 -45.198608
1316.984863 352.699554 -44.721436
1627.098877 1578.171875 -36.143677
1306.043213 363.641266 -46.294556
1625.169678 1589.113647 -36.143677
1316.984863 363.641266 -46.913208
1306.043213 374.582977 -46.711548
1624.525146 1632.880493 -36.143677
1316.984863 374.582977 -46.758057
1625.916138 1643.822144 -36.143677
1628.088745 1654.763794 -36.143677
1316.984863 385.524689 -46.234009
1327.926636 352.699554 -45.655029
1338.868286 352.699554 -46.413086
1327.926636 363.641266 -46.977295
2367.389648 1303.519409 -36.143677
2367.389648 1304.629028 -36.466431
2365.834229 1304.629028 -36.143677
1338.868286 363.641266 -46.990601
2389.273193 1292.030029 -36.143677
2389.273193 1293.687256 -37.145264
2385.814453 1293.687256 -36.143677
2378.331543 1304.629028 -38.833008
2378.331543 1296.751709 -36.143677
1327.926636 374.582977 -46.783081
1338.868286 374.582977 -46.927612
2389.273193 1304.629028 -42.25415
1327.926636 385.524689 -45.933105
2400.214844 1293.687256 -40.524292
2400.214844 1287.227173 -36.143677
1338.868286 385.524689 -46.396606
2411.156494 1293.687256 -41.489258
2411.156494 1284.690796 -36.143677
2400.214844 1304.629028 -45.058716
2411.156494 1304.629028 -45.762573
1327.926636 396.4664 -46.103394
1338.868286 396.4664 -45.978882
2422.098389 1293.687256 -40.574341
2422.098389 1284.386353 -36.143677
2433.040039 1286.282471 -36.143677
2433.040039 1293.687256 -39.10791
1338.868286 407.408112 -46.616943
2422.098389 1304.629028 -45.434937
791.782471 976.377441 -43.297729
2433.040039 1304.629028 -44.352783
1349.810059 396.4664 -46.400024
2443.981689 1290.18335 -36.143677
2443.981689 1293.687256 -37.435669
791.782471 987.319214 -41.727295
1349.810059 407.408112 -45.9375
2454.923584 1292.02063 -36.143677
2454.923584 1293.687256 -36.828613
791.782471 998.260864 -40.180298
802.724182 965.435791 -43.375244
1360.751709 407.408112 -45.882812
2443.981689 1304.629028 -42.288452
813.665894 965.435791 -41.066406
2454.923584 1304.629028 -41.584961
802.724182 976.377441 -38.647461
2498.69043 1279.87915 -36.143677
2498.69043 1282.745483 -37.875854
2494.481201 1282.745483 -36.143677
1360.751709 418.349823 -46.053589
813.665894 976.377441 -36.952026
2465.865234 1293.687256 -37.708984
2465.865234 1290.587158 -36.143677
824.607605 965.435791 -38.859741
2476.806885 1293.687256 -38.458984
2476.806885 1289.225708 -36.143677
2465.865234 1304.629028 -43.405151
835.549316 965.435791 -36.724976
2476.806885 1304.629028 -44.816406
824.607605 976.377441 -36.332153
2487.748535 1293.687256 -40.126953
2487.748535 1286.27417 -36.143677
1437.34375 352.699554 -45.359375
835.549316 976.377441 -36.203125
1448.285522 352.699554 -40.437378
802.724182 987.319214 -38.211182
2498.69043 1293.687256 -44.457642
1437.34375 363.641266 -45.426514
813.665894 987.319214 -36.828613
1448.285522 363.641266 -40.755005
802.724182 998.260864 -36.469849
1437.34375 374.582977 -46.02124
813.665894 993.651367 -36.143677
804.172974 998.260864 -36.143677
1448.285522 374.582977 -41.516968
824.607605 987.319214 -36.814453
835.549316 987.319214 -37.744751
824.607605 996.433838 -36.143677
1448.285522 385.524689 -44.743774
2564.340576 1256.355469 -36.143677
2564.340576 1260.862061 -37.495483
2556.452637 1260.862061 -36.143677
2520.57373 1270.565308 -36.143677
2520.57373 1271.803833 -36.940186
2514.815674 1271.803833 -36.143677
1371.693481 407.408112 -45.311768
835.549316 998.260864 -36.982056
826.585144 998.260864 -36.143677
2509.63208 1282.745483 -41.700195
2509.63208 1273.660889 -36.143677
1382.635132 407.408112 -44.949219
780.840759 1009.202637 -46.77478
1393.576904 407.408112 -45.66272
2520.57373 1282.745483 -42.847412
1404.518677 407.408112 -46.565308
791.782471 1009.202637 -37.77063
2531.515381 1271.803833 -37.823853
2531.515381 1268.993774 -36.143677
780.840759 1020.144287 -44.169556
1371.693481 418.349823 -45.064209
2542.457275 1271.803833 -39.056396
2542.457275 1266.922485 -36.143677
791.782471 1020.144287 -37.046997
1382.635132 418.349823 -44.511597
2531.515381 1282.745483 -44.466309
780.840759 1031.08606 -42.755737
1371.693481 429.291595 -46.56665
791.782471 1031.08606 -37.789185
1382.635132 429.291595 -46.057007
780.840759 1042.02771 -41.699707
1393.576904 418.349823 -45.033081
791.782471 1042.02771 -37.614746
1404.518677 418.349823 -46.9021
1393.576904 429.291595 -46.041504
802.724182 999.390015 -36.143677
795.980591 1009.202637 -36.143677
794.837463 1020.144287 -36.143677
2553.398926 1271.803833 -40.946167
2553.398926 1262.655396 -36.143677
835.549316 1001.853638 -36.143677
2564.340576 1271.803833 -42.531616
798.310181 1031.08606 -36.143677
797.650269 1042.02771 -36.143677
846.491028 965.435791 -36.570679
1450.78772 341.757843 -36.143677
857.432739 965.435791 -37.94165
2323.622803 1341.961304 -36.143677
2323.622803 1348.395874 -38.696533
2319.696777 1348.395874 -36.143677
1455.214111 352.699554 -36.143677
846.491028 976.377441 -36.478149
1456.705811 363.641266 -36.143677
2301.739502 1368.280762 -36.143677
2301.739502 1370.279297 -37.244019
2300.127686 1370.279297 -36.143677
857.432739 972.75769 -36.143677
856.050842 976.377441 -36.143677
2312.681152 1356.528442 -36.143677
2312.681152 1359.337524 -37.742676
2309.75708 1359.337524 -36.143677
1457.40332 374.582977 -36.143677
868.374512 965.435791 -38.81665
2323.622803 1359.337524 -46.213623
1459.227173 383.630585 -36.143677
1459.227173 385.524689 -36.750366
879.316223 965.435791 -40.42041
1459.865356 385.524689 -36.143677
2312.681152 1370.279297 -46.113281
868.374512 969.299683 -36.143677
879.316223 970.582642 -36.143677
1459.227173 396.4664 -44.234497
846.491028 987.319214 -37.712158
1466.618286 396.4664 -36.143677
2301.739502 1381.220947 -43.515991
2292.86792 1381.220947 -36.143677
855.502808 987.319214 -36.143677
2290.797607 1385.292236 -36.143677
2290.797607 1392.16272 -38.432739
2287.715576 1392.16272 -36.143677
844.417664 998.260864 -36.143677
846.491028 996.893799 -36.143677
1470.168945 400.093414 -36.143677
1470.168945 407.408112 -46.610718
1480.561035 407.408112 -36.143677
1481.110596 407.69455 -36.143677
890.257935 976.377441 -41.992188
883.104797 976.377441 -36.143677
1492.052368 414.634308 -36.143677
1492.052368 418.349823 -41.240112
2279.855957 1417.562256 -36.143677
2279.855957 1424.987915 -38.714111
2276.541016 1424.987915 -36.143677
890.257935 987.319214 -42.302246
880.681091 987.319214 -36.143677
2279.855957 1435.929565 -41.288452
2272.93335 1435.929565 -36.143677
1496.627319 418.349823 -36.143677
2290.797607 1403.10437 -41.756226
2284.397949 1403.10437 -36.143677
890.257935 998.260864 -43.423584
880.729919 998.260864 -36.143677
1502.994019 425.9758 -36.143677
1502.994019 429.291595 -37.945557
2290.797607 1414.046143 -45.253784
2281.267578 1414.046143 -36.143677
1504.859497 429.291595 -36.143677
890.257935 1009.202637 -40.147705
886.611328 1009.202637 -36.143677
890.257935 1017.110718 -36.143677
891.333557 1020.144287 -36.143677
2279.855957 1446.871338 -42.248291
2271.922363 1446.871338 -36.143677
901.199585 1031.08606 -45.37207
894.351135 1031.08606 -36.143677
2279.855957 1457.812988 -41.950684
2273.514893 1457.812988 -36.143677
901.199585 1042.02771 -42.993042
895.182007 1042.02771 -36.143677
2279.855957 1468.754761 -38.022583
2278.001221 1468.754761 -36.143677
2279.855957 1472.383423 -36.143677
780.840759 1052.969482 -42.538452
791.782471 1052.969482 -38.596924
780.840759 1063.911133 -45.578979
1284.15979 549.650513 -44.526855
791.782471 1063.911133 -42.427124
1295.10144 549.650513 -46.756226
2290.797607 1479.696411 -41.432617
2283.966064 1479.696411 -36.143677
1284.15979 560.592163 -40.496582
791.782471 1074.852905 -45.718018
1295.10144 560.592163 -43.028564
2290.797607 1490.638184 -37.449951
2288.484131 1490.638184 -36.143677
802.724182 1052.325195 -36.143677
802.724182 1052.969482 -36.28125
1306.043213 560.592163 -45.620483
804.526123 1052.969482 -36.143677
1316.984863 560.592163 -46.281372
802.724182 1063.911133 -39.074707
1327.926636 560.592163 -46.431274
813.665894 1063.911133 -37.101685
813.665894 1053.376221 -36.143677
2301.739502 1490.638184 -44.331299
821.138306 1063.911133 -36.143677
2290.797607 1501.579834 -37.147583
2288.724365 1501.579834 -36.143677
802.724182 1074.852905 -41.705566
1284.15979 571.533936 -37.94812
2301.739502 1501.579834 -42.987183
813.665894 1074.852905 -38.461304
1295.10144 571.533936 -39.278442
1284.15979 582.475586 -38.017822
802.724182 1085.794678 -43.095947
1295.10144 582.475586 -38.534424
2290.797607 1512.521606 -36.985107
2288.920898 1512.521606 -36.143677
813.665894 1085.794678 -39.417969
1306.043213 571.533936 -41.716187
2301.739502 1512.521606 -41.715454
2290.797607 1517.934814 -36.143677
1316.984863 571.533936 -43.013672
824.607605 1071.962402 -36.143677
824.607605 1074.852905 -36.517212
827.106628 1074.852905 -36.143677
1306.043213 582.475586 -40.355591
2301.739502 1523.463257 -37.449951
2296.622803 1523.463257 -36.143677
824.607605 1085.794678 -37.611206
1316.984863 582.475586 -41.580811
2312.681152 1512.521606 -45.317383
1284.15979 593.417358 -39.609375
835.549316 1083.83606 -36.143677
835.549316 1085.794678 -36.682983
1295.10144 593.417358 -39.96814
2312.681152 1523.463257 -39.789551
1284.15979 604.359009 -41.88147
802.724182 1096.736328 -43.828613
1295.10144 604.359009 -41.926025
2323.622803 1523.463257 -42.201538
813.665894 1096.736328 -39.366699
1306.043213 593.417358 -41.526489
802.724182 1107.678101 -46.359619
1316.984863 593.417358 -42.282959
2301.739502 1525.84729 -36.143677
813.665894 1107.678101 -41.579224
1306.043213 604.359009 -42.647827
2312.681152 1529.903809 -36.143677
824.607605 1096.736328 -37.905396
1316.984863 604.359009 -43.522461
2323.622803 1534.149292 -36.143677
835.549316 1096.736328 -39.666382
1327.926636 571.533936 -43.626099
824.607605 1107.678101 -40.177124
2334.564697 1325.89917 -36.143677
2334.564697 1326.512451 -36.344482
2334.073975 1326.512451 -36.143677
1338.868286 571.533936 -44.026001
835.549316 1107.678101 -43.666748
2345.506348 1326.512451 -41.294556
2345.506348 1316.250366 -36.143677
1327.926636 582.475586 -42.585815
2356.447998 1310.578369 -36.143677
2356.447998 1315.570679 -38.43103
2346.74707 1315.570679 -36.143677
1338.868286 582.475586 -42.904907
2367.389648 1315.570679 -40.291504
1349.810059 571.533936 -45.406616
824.607605 1118.619751 -45.680664
2356.447998 1326.512451 -45.065796
1349.810059 582.475586 -43.926147
835.549316 1118.619751 -47.05542
2367.389648 1326.512451 -45.861938
2334.564697 1337.454102 -41.263184
2326.29541 1337.454102 -36.143677
1327.926636 593.417358 -42.546509
835.549316 1129.561523 -46.643677
1338.868286 593.417358 -42.242432
1327.926636 604.359009 -43.684814
846.491028 1084.550903 -36.143677
846.491028 1085.794678 -36.894531
1338.868286 604.359009 -42.877808
857.432739 1085.794678 -38.755005
857.432739 1081.969849 -36.143677
1349.810059 593.417358 -43.399292
879.316223 1073.179688 -36.143677
879.316223 1074.852905 -37.046265
875.96814 1074.852905 -36.143677
868.374512 1085.794678 -41.200439
868.374512 1077.892334 -36.143677
1349.810059 604.359009 -44.037231
879.316223 1085.794678 -42.78064
2378.331543 1315.570679 -42.234253
901.199585 1052.969482 -42.903442
893.53479 1052.969482 -36.143677
890.257935 1061.681519 -36.143677
890.257935 1063.911133 -36.786865
889.036011 1063.911133 -36.143677
2389.273193 1315.570679 -44.977539
2378.331543 1326.512451 -46.00293
901.199585 1063.911133 -42.772339
2400.214844 1315.570679 -47.050537
1492.052368 451.175018 -45.258789
912.141357 1063.911133 -46.765137
890.257935 1074.852905 -39.911499
1492.052368 462.11673 -42.865356
901.199585 1074.852905 -42.327759
1502.994019 440.233307 -40.527588
890.257935 1085.794678 -42.482056
1511.448975 440.233307 -36.143677
901.199585 1085.794678 -41.942627
1502.994019 451.175018 -38.740845
912.141357 1074.852905 -44.789795
1513.935791 451.175018 -37.431885
1513.935791 441.669464 -36.143677
912.141357 1085.794678 -44.202881
1524.877563 441.194855 -36.143677
1524.877563 451.175018 -40.224854
1535.819214 451.175018 -41.757568
1535.819214 440.285614 -36.143677
846.491028 1096.736328 -43.892334
1502.994019 462.11673 -39.62085
857.432739 1096.736328 -47.001221
1513.935791 462.11673 -38.77063
2443.981689 1315.570679 -46.899658
2454.923584 1315.570679 -46.265625
1524.877563 462.11673 -41.115479
1535.819214 462.11673 -44.555542
879.316223 1129.561523 -46.174805
1546.760986 451.175018 -40.77356
1546.760986 442.195526 -36.143677
1557.702637 447.059723 -36.143677
1557.702637 451.175018 -38.78418
890.257935 1096.736328 -45.249268
1566.448608 451.175018 -36.143677
901.199585 1096.736328 -43.36792
901.199585 1107.678101 -46.21936
912.141357 1096.736328 -46.041992
1568.644409 452.176239 -36.143677
1568.644409 462.11673 -46.669678
2334.564697 1523.463257 -45.769775
1579.58606 462.11673 -40.840088
1579.58606 458.411957 -36.143677
890.257935 1129.561523 -46.583984
2334.564697 1534.405029 -38.913452
2324.22583 1534.405029 -36.143677
1586.162231 462.11673 -36.143677
2345.506348 1534.405029 -43.234863
1590.527832 464.338898 -36.143677
2334.564697 1539.452026 -36.143677
1601.469482 473.058441 -40.552856
1601.469482 469.35788 -36.143677
2345.506348 1544.635498 -36.143677
1612.411255 473.058441 -36.168457
1612.411255 473.023468 -36.143677
1612.522461 473.058441 -36.143677
2356.447998 1545.346802 -38.522461
2347.496826 1545.346802 -36.143677
2367.389648 1545.346802 -42.827148
748.015625 1162.386597 -46.524902
1612.411255 484.000153 -45.249023
2356.447998 1549.200928 -36.143677
737.073853 1173.328369 -46.352417
2367.389648 1554.687988 -36.143677
1623.353027 477.121246 -36.143677
1623.353027 484.000153 -40.851685
748.015625 1173.328369 -44.383057
2378.331543 1545.346802 -47.015625
704.248718 1206.153564 -44.938721
693.307007 1217.095215 -40.696655
2378.331543 1556.288452 -39.296997
2370.416748 1556.288452 -36.143677
704.248718 1217.095215 -36.718628
726.132141 1184.27002 -45.822021
2389.273193 1556.288452 -44.524048
715.19043 1195.211792 -45.257324
2378.331543 1562.713867 -36.143677
726.132141 1195.211792 -38.257935
2389.273193 1567.230225 -40.221313
2380.990234 1567.230225 -36.143677
1634.294678 481.047089 -36.143677
1634.294678 484.000153 -38.120361
1640.612183 484.000153 -36.143677
737.073853 1184.27002 -42.523071
748.015625 1184.27002 -41.050293
2400.214844 1567.230225 -45.12915
1634.294678 494.941864 -45.26355
737.073853 1195.211792 -36.880737
1645.23645 494.941864 -40.526733
1645.23645 487.57663 -36.143677
748.015625 1195.211792 -37.221802
1651.496582 494.941864 -36.143677
715.19043 1206.153564 -36.88562
1645.23645 505.883575 -44.439087
726.132141 1199.299805 -36.143677
716.798889 1206.153564 -36.143677
1645.23645 516.825317 -44.267822
2389.273193 1578.171875 -38.522827
2384.271729 1578.171875 -36.143677
715.19043 1207.99707 -36.143677
706.751404 1217.095215 -36.143677
2389.273193 1589.113647 -37.113037
2387.093994 1589.113647 -36.143677
1656.178101 503.81308 -36.143677
1656.178101 505.883575 -36.820801
2400.214844 1578.171875 -43.312378
1657.051636 505.883575 -36.143677
737.073853 1197.430542 -36.143677
1656.178101 516.825317 -38.585205
2411.156494 1578.171875 -46.143921
748.015625 1206.153564 -36.317993
746.893127 1206.153564 -36.143677
1661.137695 516.825317 -36.143677
2400.214844 1589.113647 -41.21167
748.015625 1215.391724 -36.143677
2411.156494 1589.113647 -43.062378
2389.273193 1595.587036 -36.143677
1645.23645 527.766968 -43.034424
1645.23645 538.70874 -43.934692
660.481873 1238.978638 -43.212646
2400.214844 1600.055298 -39.229004
2390.573486 1600.055298 -36.143677
1656.178101 527.766968 -38.634155
649.540161 1249.92041 -45.927734
1663.856812 527.766968 -36.143677
2411.156494 1600.055298 -40.790527
660.481873 1249.92041 -36.859985
1656.178101 538.70874 -39.267578
2400.214844 1610.996948 -36.807617
2397.408447 1610.996948 -36.143677
1666.241089 538.70874 -36.143677
649.540161 1260.862061 -39.706177
2411.156494 1610.996948 -38.603027
2400.214844 1613.016235 -36.143677
660.481873 1250.884033 -36.143677
652.333008 1260.862061 -36.143677
1656.178101 549.650513 -41.519531
2411.156494 1619.648071 -36.143677
1667.119873 541.188354 -36.143677
638.59845 1271.803833 -46.715454
1667.119873 549.650513 -37.173706
638.59845 1282.745483 -41.085327
1656.178101 560.592163 -46.341797
2422.098389 1589.113647 -43.40625
